# .PCD v0.7 - Point Cloud Data file format
VERSION 0.7
FIELDS x y z
SIZE 4 4 4
TYPE F F F
COUNT 1 1 1
WIDTH 1548
HEIGHT 1
VIEWPOINT 0 0 0 1 0 0 0
POINTS 1548
DATA ascii
nan nan nan
nan nan nan
nan nan nan
2.8481903 -2.5686147 -0.73433256
2.815979 -2.5971038 -0.73136902
2.7775238 -2.6174667 -0.72618484
2.7272525 -2.6281953 -0.71845961
2.5161052 -2.479352 -0.66802841
2.3892472 -2.4053559 -0.63887328
2.2359192 -2.3016815 -0.60282135
2.1088612 -2.2197988 -0.57332045
2.09198 -2.2496223 -0.5730629
2.0770111 -2.2838979 -0.57399297
2.0549803 -2.3107612 -0.57298738
2.040287 -2.3439624 -0.57359862
2.0270948 -2.3817005 -0.57528812
2.0070872 -2.4118729 -0.5750528
1.9928293 -2.4495256 -0.5766989
1.9609375 -2.4630859 -0.57255858
1.9548411 -2.5122387 -0.57674772
1.9241211 -2.5301404 -0.57378632
1.912392 -2.5702858 -0.57584339
1.9013462 -2.6155288 -0.57894516
1.8639239 -2.6247418 -0.57410616
1.8490131 -2.6657243 -0.5762831
1.8239228 -2.6894073 -0.57463986
1.8106265 -2.7343843 -0.57762814
1.7911377 -2.7711515 -0.57874602
1.8026133 -2.8578448 -0.5901593
nan nan nan
2.7538896 -4.5816483 -0.92530292
2.7708373 -4.7270517 -0.9442566
1.4719366 2.5895984 -0.49758849
1.3709034 2.3514917 -0.45660278
1.3721653 2.2988181 -0.45106384
1.5052574 2.4600241 -0.48773804
1.6367912 2.6101112 -0.52309036
1.587945 2.4714503 -0.50063783
1.6418664 2.4947937 -0.51097959
1.7335191 2.575429 -0.53333133
2.1081994 3.0589831 -0.64060545
2.0704463 2.9347544 -0.62147874
1.7563019 2.4322457 -0.52103621
1.7404404 2.3579924 -0.51096493
nan nan nan
nan nan nan
2.3479753 2.9708164 -0.66696107
2.4081008 2.9789937 -0.6770224
2.4358315 2.9493182 -0.67852342
2.4870191 2.9446132 -0.68591356
2.5319073 2.9316759 -0.6915791
2.5299687 2.8675113 -0.68516278
2.5545578 2.8318672 -0.68540955
2.5920947 2.8104835 -0.6891939
2.6226833 2.7814362 -0.69109082
2.6723268 2.7743595 -0.69869751
2.6956513 2.7373612 -0.69881958
2.7360327 2.7176099 -0.70341796
2.7468736 2.6707995 -0.70107144
2.7795594 2.6434021 -0.70387572
2.8300846 2.6323133 -0.71108919
2.8868763 2.6280897 -0.72038639
2.9082458 2.5892029 -0.72038454
2.9540904 2.573808 -0.72699982
3.0010142 2.5565464 -0.73327398
3.0666826 2.5543506 -0.74402767
3.1127431 2.5365446 -0.7506038
3.1404185 2.5016387 -0.75234908
3.178601 2.4764159 -0.75698853
3.2252998 2.4556389 -0.76324081
3.2592404 2.4262588 -0.76698399
3.3135517 2.4100177 -0.77500308
3.363153 2.3908262 -0.78237301
3.4094748 2.3671501 -0.78857726
3.3940988 2.3023148 -0.78090137
3.4560521 2.2887523 -0.79086363
3.4721451 2.2455561 -0.79065979
3.5008376 2.2093763 -0.79288518
3.5452805 2.1837914 -0.79926997
3.5854049 2.155091 -0.80460024
3.6089358 2.1149197 -0.80590034
3.6528683 2.0875773 -0.81219894
3.7265587 2.0761006 -0.82503015
3.7751198 2.0485115 -0.83192825
3.8273921 2.0231791 -0.84006405
3.918884 2.0169921 -0.85667354
3.9535611 1.9804238 -0.86104786
3.7541597 1.829489 -0.81456345
3.4855244 1.6516123 -0.7534259
3.4229295 1.5762891 -0.73722655
3.44888 1.5425613 -0.74020386
3.4833305 1.5124273 -0.745112
3.5130749 1.4797572 -0.74894851
3.5834632 1.4633628 -0.76147842
3.6173606 1.430972 -0.76630688
3.6693761 1.4051967 -0.77489322
3.698086 1.3702203 -0.77889955
3.6804821 1.3177935 -0.77296937
3.736187 1.2919663 -0.78268194
3.7778766 1.2600769 -0.78925169
3.777251 1.2140678 -0.78719985
3.813638 1.1799622 -0.7929346
3.8308828 1.1393783 -0.79465479
3.8288 1.0933057 -0.79247314
3.8262579 1.0472956 -0.79028594
3.728271 0.97662324 -0.76841766
3.691139 0.92370242 -0.75923342
3.6579263 0.87308043 -0.75101304
3.6002355 0.81750417 -0.73776448
3.6185532 0.78004533 -0.7403
3.6651616 0.74814421 -0.74860996
nan nan nan
5.330256 0.96680754 -1.0855087
5.6255145 0.95679754 -1.1441785
5.6114306 0.89114398 -1.1397942
5.5771561 0.82298279 -1.1314697
nan nan nan
nan nan nan
nan nan nan
3.2864904 0.33835754 -0.66406524
3.2509367 0.29867157 -0.65628475
3.278415 0.2648738 -0.66141665
3.2712972 0.22815171 -0.65954727
3.2344985 0.1899205 -0.65166032
3.2217259 0.15371673 -0.64880311
3.2085366 0.1177353 -0.64584506
3.2047358 0.082328796 -0.64485902
3.1809278 0.04674194 -0.63992888
3.2057335 0.011875305 -0.64475924
3.2057335 -0.02335144 -0.6446594
3.2101357 -0.058667757 -0.64554524
3.1995368 -0.093661502 -0.64347446
3.1885452 -0.12834045 -0.64130497
3.1919506 -0.16365662 -0.64209104
3.1606054 -0.19694641 -0.63598514
3.0752242 -0.22554779 -0.61896074
3.1263673 -0.2638672 -0.62949222
3.0989387 -0.29581526 -0.62418669
3.0809228 -0.32836303 -0.62094849
3.1015065 -0.36498031 -0.62556946
3.0731118 -0.39596435 -0.62027347
3.0637238 -0.42903686 -0.61890686
3.0637574 -0.46346924 -0.61950195
2.9521744 -0.47972718 -0.59747159
2.9950836 -0.52051389 -0.60669857
3.0134201 -0.55789948 -0.6111145
3.0505252 -0.59950227 -0.61943084
nan nan nan
nan nan nan
nan nan nan
4.9614921 -1.2035609 -1.0132658
4.9719157 -1.264087 -1.017175
4.9483905 -1.3163104 -1.014115
4.9291682 -1.3693194 -1.0120296
4.9046259 -1.4205418 -1.0088181
4.8890591 -1.4743899 -1.0075475
4.8634953 -1.524985 -1.004185
4.841867 -1.5770518 -1.0021096
4.8247614 -1.6299527 -1.0006843
4.8298593 -1.6912782 -1.0042313
4.7652674 -1.727236 -0.99302673
4.7599783 -1.7848932 -0.99448788
4.7402182 -1.8372179 -0.99306518
4.7108722 -1.8857373 -0.98972809
4.6856675 -1.9357716 -0.98735231
4.6643882 -1.9871569 -0.98577607
4.655961 -2.0444622 -0.98689997
4.6379862 -2.0977035 -0.98627031
4.5927906 -2.1381371 -0.9797827
4.5560446 -2.1823227 -0.97520739
4.5409875 -2.2365918 -0.97521502
4.5033035 -2.2798083 -0.97065181
4.4827194 -2.3313282 -0.9695549
4.4654751 -2.3858867 -0.96986622
4.4393601 -2.4349699 -0.96797842
4.4213333 -2.4883988 -0.96780699
4.3937492 -2.5375774 -0.96607316
4.3660073 -2.5856524 -0.96386641
4.3589473 -2.6461587 -0.96631438
4.3168168 -2.686995 -0.96162647
4.2711868 -2.7236485 -0.95570761
4.2490511 -2.7766919 -0.9555124
4.2434502 -2.8394303 -0.95868427
4.2036347 -2.8812764 -0.95478177
4.18051 -2.932651 -0.95424515
4.1438589 -2.9765525 -0.95110935
4.1315126 -3.036248 -0.95314443
4.0858274 -3.073535 -0.94818109
4.0604548 -3.1239648 -0.94746065
4.0335202 -3.1753619 -0.94688964
4.0107627 -3.2282608 -0.94689471
3.9673834 -3.2669005 -0.94269407
nan nan nan
nan nan nan
nan nan nan
2.9733253 -2.6754718 -0.72497129
2.813329 -2.5886562 -0.69085371
2.7846372 -2.620075 -0.68883818
2.7034397 -2.598911 -0.67333096
2.5166552 -2.4737682 -0.63170749
2.402508 -2.4146509 -0.60778075
2.2600677 -2.3205101 -0.57591063
2.1155155 -2.2209394 -0.54356599
2.0876329 -2.2409122 -0.54098511
2.0827606 -2.2859101 -0.54438293
2.0617948 -2.3119128 -0.54323423
2.0330274 -2.3311396 -0.54054993
2.016839 -2.3649983 -0.5413028
2.0014689 -2.3978157 -0.54174805
1.9874222 -2.4353344 -0.54321903
1.9605533 -2.4575305 -0.54136932
1.945612 -2.4948816 -0.54270631
1.9270477 -2.5282905 -0.54327393
1.9006714 -2.5486631 -0.54101026
1.8928455 -2.597713 -0.54479247
1.8641931 -2.6188042 -0.54280275
1.8437867 -2.6516428 -0.54310149
1.8272932 -2.6874442 -0.54410541
1.800357 -2.7118652 -0.54271543
1.7838593 -2.7526023 -0.54459459
1.7904357 -2.8308589 -0.55378038
nan nan nan
2.8072953 -4.6567979 -0.89103675
2.8662241 -4.8750815 -0.92259157
1.4087989 2.4713967 -0.449209
1.3369281 2.2901325 -0.42059645
1.3668275 2.2836111 -0.42380783
1.4484682 2.3608978 -0.44273254
1.7788604 2.8294418 -0.53634399
nan nan nan
1.802066 2.7315772 -0.52909702
1.6755112 2.4833503 -0.48635209
2.0782959 3.0086164 -0.59586638
2.1736467 3.074074 -0.61576951
2.0884633 2.8858626 -0.58466399
1.9171712 2.5889435 -0.53058243
1.7950329 2.3718467 -0.49179614
1.881187 2.4297912 -0.50981885
2.3454776 2.9616811 -0.6289438
2.4086597 2.9738221 -0.63916749
2.4363022 2.9443283 -0.64059067
2.4874592 2.9397137 -0.64757597
2.5226231 2.9155562 -0.65043366
2.5347645 2.8652418 -0.64745605
2.5612984 2.8343506 -0.64875031
2.5888183 2.8022304 -0.64980286
2.6362095 2.7912107 -0.65590239
2.6632161 2.7581868 -0.65695983
2.674762 2.7119164 -0.6547429
2.7288575 2.706363 -0.66245729
2.7476463 2.6654837 -0.66168779
2.7863433 2.6460207 -0.6662659
2.8224835 2.6215425 -0.66964477
2.8875806 2.6231616 -0.68002075
2.9161012 2.5908947 -0.68159181
2.9619951 2.5753889 -0.68784058
3.0201013 2.5678291 -0.69646454
3.0775306 2.5602255 -0.70524675
3.1055667 2.5258627 -0.70685947
3.1408141 2.4972556 -0.71021497
3.190495 2.48119 -0.71719742
3.2293115 2.4545484 -0.72132689
3.2673166 2.4281516 -0.72571981
3.321569 2.4119265 -0.73338962
3.3880541 2.4032414 -0.74359983
3.4135532 2.3662803 -0.74540281
3.3946123 2.2979441 -0.737086
3.4436436 2.2771139 -0.74393147
3.4684796 2.2387075 -0.74533969
3.5255911 2.2217984 -0.7539975
3.5408614 2.1781287 -0.75376433
3.6025519 2.1613226 -0.76309568
3.6256168 2.121969 -0.76452911
3.6486816 2.0815728 -0.76570189
3.7182486 2.0678642 -0.7770164
3.7705593 2.043617 -0.7847681
3.8319254 2.0222297 -0.79394323
3.9190431 2.014004 -0.80882812
3.9626348 1.9820735 -0.81471652
3.9793854 1.9363403 -0.81504822
3.7823377 1.7896243 -0.77184206
3.5336466 1.6244612 -0.71838868
3.5151126 1.5695604 -0.71207887
3.5228181 1.527059 -0.71133256
3.5256686 1.4826114 -0.7095499
3.6051855 1.4698938 -0.72316408
3.6483271 1.4410903 -0.7296167
3.6543658 1.3978827 -0.72888124
3.6740365 1.359385 -0.73052657
3.7070208 1.3255074 -0.73504853
3.7443042 1.2930732 -0.74062079
3.7721896 1.2565324 -0.74399459
3.7903247 1.2164338 -0.74565583
3.8219597 1.1808317 -0.75020754
3.8674793 1.1487687 -0.75741059
3.8134739 1.0874354 -0.74523371
3.7681708 1.0301422 -0.73475873
3.7505672 0.98131394 -0.72981536
3.7467408 0.93656528 -0.72764009
3.7805927 0.90100324 -0.73275161
nan nan nan
nan nan nan
nan nan nan
5.7120557 1.0995215 -1.0998828
5.8251352 1.0552208 -1.1199425
5.8216376 0.98895025 -1.117888
5.7932754 0.91896605 -1.1109942
5.7494707 0.8475014 -1.10112
nan nan nan
nan nan nan
nan nan nan
3.4058726 0.35022292 -0.64960873
3.3703554 0.30930144 -0.64236295
3.3881984 0.27348024 -0.64526552
3.3616471 0.23426332 -0.6397754
3.3590462 0.19712982 -0.63884276
3.3364992 0.15906373 -0.63428348
3.3233287 0.12189636 -0.63148516
3.3146439 0.085178375 -0.6296196
3.2957182 0.04853119 -0.62588853
3.320586 0.012481079 -0.63044924
3.3156738 -0.02399826 -0.6294136
3.3054388 -0.060177308 -0.627446
3.2897842 -0.095997617 -0.62454683
3.2788427 -0.13169189 -0.6224786
3.272306 -0.16742173 -0.62134326
3.2261438 -0.20060486 -0.61275846
3.1993375 -0.23415376 -0.607903
3.211333 -0.27056396 -0.61039549
3.1886675 -0.30393371 -0.6063751
3.1949561 -0.33989319 -0.60793579
3.1666675 -0.37205398 -0.6028918
3.1673813 -0.40744019 -0.60352325
3.1529882 -0.44079345 -0.60127074
3.1529024 -0.476134 -0.60170346
3.084604 -0.50046569 -0.58916569
3.1031809 -0.53843766 -0.5934062
3.1020465 -0.57336825 -0.59384215
3.0667474 -0.60168457 -0.587807
nan nan nan
nan nan nan
4.9752655 -1.147504 -0.95757449
5.1249762 -1.2413766 -0.9879275
5.0826426 -1.2902794 -0.98142642
5.1254807 -1.3610982 -0.99131149
5.1057615 -1.4159276 -0.9892413
5.0712476 -1.4663928 -0.98425961
5.045774 -1.5189502 -0.9811182
5.0195432 -1.5714645 -0.97830808
4.9973989 -1.6251292 -0.97608882
4.9842772 -1.6813446 -0.97569579
4.9565463 -1.7327949 -0.97256839
4.9280701 -1.7838778 -0.96944577
4.904109 -1.8358314 -0.96691126
4.897716 -1.894944 -0.96816838
4.8631573 -1.9432479 -0.96398616
4.8507991 -2.0002995 -0.96433121
4.8108797 -2.0458403 -0.95909411
4.801847 -2.1044781 -0.96017426
4.7560115 -2.147547 -0.95437545
4.7236156 -2.1955311 -0.95079899
4.712852 -2.2536063 -0.95170987
4.6705623 -2.2964554 -0.9463495
4.6411486 -2.3454123 -0.94368082
4.6237526 -2.4013977 -0.94385058
4.5932336 -2.4496601 -0.94118345
4.5966473 -2.516407 -0.94529796
4.5558271 -2.5602016 -0.94101471
4.5450091 -2.6197808 -0.94244444
4.5201297 -2.6728728 -0.94153762
4.4909863 -2.7222047 -0.93942112
4.4531546 -2.7658539 -0.93538511
4.4098215 -2.8074875 -0.93096769
4.3834801 -2.8583047 -0.92957354
4.3682265 -2.9179037 -0.93111771
4.3244486 -2.9571071 -0.92606449
4.287457 -3.0023391 -0.92308551
4.2940626 -3.0788825 -0.92964077
4.2290587 -3.1022415 -0.92027205
4.2143006 -3.1639907 -0.92247009
4.1840839 -3.2127059 -0.92071748
4.1523318 -3.2623243 -0.91928715
4.1544137 -3.3394797 -0.92538601
4.099555 -3.3687475 -0.9184804
nan nan nan
nan nan nan
nan nan nan
3.0281794 -2.7206476 -0.69648379
2.9145753 -2.6777284 -0.67512965
2.7708988 -2.6010191 -0.64610779
2.7208536 -2.611361 -0.63921207
2.5757833 -2.527643 -0.60985106
2.4269927 -2.4331613 -0.5786708
2.2726777 -2.3294768 -0.54624021
2.1176245 -2.2191777 -0.51317656
2.0896778 -2.2391098 -0.51064593
2.0693154 -2.2650192 -0.50957
2.0542145 -2.2990227 -0.51040649
2.0288467 -2.3218155 -0.50859451
2.0288336 -2.3743296 -0.51336592
2.0134113 -2.4072235 -0.51376098
1.9836967 -2.425724 -0.51120907
1.9631178 -2.4555254 -0.51097244
1.939136 -2.4810896 -0.50992495
1.925138 -2.5173147 -0.51096678
1.8944594 -2.5347159 -0.50831252
1.8957038 -2.5956163 -0.51425582
1.8613592 -2.608537 -0.51069534
1.841112 -2.6413879 -0.51106626
1.8247802 -2.6770117 -0.51189941
1.7953515 -2.6972315 -0.50989747
1.7952291 -2.7628148 -0.51631027
1.783319 -2.8118641 -0.5195691
nan nan nan
2.8754785 -4.7631989 -0.86078799
2.9568634 -5.0146246 -0.89640594
1.3337696 2.336421 -0.4003467
1.281639 2.1892676 -0.37902009
1.3435254 2.2385378 -0.3916333
1.4532619 2.3624387 -0.41773683
1.7293872 2.7435765 -0.4902783
1.5553162 2.4086428 -0.43507081
nan nan nan
1.6751603 2.4768295 -0.45733187
1.7048373 2.4622447 -0.4597522
1.8887155 2.6650395 -0.5031935
1.6912836 2.3319645 -0.44541642
nan nan nan
nan nan nan
nan nan nan
nan nan nan
2.4151721 2.9760718 -0.6029346
2.4506516 2.9529936 -0.60572708
2.487627 2.9344442 -0.60942578
2.5388885 2.9291365 -0.61603624
2.5280597 2.8528283 -0.60760128
2.5624733 2.8283336 -0.61015761
2.595314 2.8044744 -0.61307281
2.635962 2.7862971 -0.61722749
2.6661952 2.7570126 -0.61888731
2.6857808 2.7167239 -0.61826932
2.710737 2.6843162 -0.61935776
2.7718904 2.6850226 -0.62823945
2.7903786 2.6439357 -0.62749344
2.8444767 2.6363909 -0.6348111
2.8867981 2.6189485 -0.63984984
2.9301286 2.5998607 -0.64466465
2.9696567 2.5768483 -0.64868134
3.0381372 2.5798645 -0.65948361
3.0928113 2.5680158 -0.66668928
3.1131341 2.5273514 -0.66666597
3.1360674 2.4905415 -0.66758054
3.1904707 2.4767702 -0.67471021
3.2253213 2.4471152 -0.67786115
3.2669678 2.4239159 -0.68280029
3.3253396 2.410687 -0.69081956
3.3791747 2.3944151 -0.698291
3.4011405 2.3540547 -0.69886798
3.3940701 2.2940755 -0.69347215
3.4348702 2.2679138 -0.6983391
3.4720175 2.2377014 -0.7021268
3.5083158 2.2077277 -0.70605195
3.5407133 2.1740026 -0.70901734
3.5976877 2.1555481 -0.71717423
3.6126804 2.1105816 -0.71665466
3.6565003 2.0833972 -0.72217834
3.7394886 2.0762281 -0.73520941
3.7659404 2.0377793 -0.73738229
3.8399911 2.0241115 -0.74890918
3.9145057 2.008487 -0.76020008
3.9711587 1.9833109 -0.76824772
4.0233479 1.9549377 -0.77546322
4.0620847 1.9192969 -0.78013182
4.0156684 1.8435202 -0.76825887
3.7969437 1.6932544 -0.72389585
3.5980084 1.557724 -0.68369812
3.6102285 1.5163422 -0.68380964
3.630924 1.4786536 -0.68551999
3.646714 1.4388148 -0.68637025
3.6943438 1.4110333 -0.69326383
3.6955566 1.3654785 -0.69152832
3.7564592 1.3413895 -0.70091403
3.7799828 1.3036902 -0.70351195
3.7939837 1.2621832 -0.70425534
3.8168671 1.2235587 -0.70661104
3.8580139 1.1905365 -0.7126953
3.8518944 1.1425195 -0.7097168
3.8592367 1.0990859 -0.70959318
3.7806842 1.0321667 -0.69377929
3.7963789 0.99199355 -0.69513732
nan nan nan
nan nan nan
5.8864312 1.3334546 -1.0717398
6.0400324 1.2989296 -1.0976654
6.0634675 1.2348275 -1.1003736
6.0426712 1.1617661 -1.0948181
6.0548782 1.0955811 -1.0953903
6.0372038 1.0242651 -1.0907018
5.9848208 0.94819462 -1.0798675
5.970427 0.8790549 -1.0760425
5.9405751 0.80827057 -1.0693927
5.7486868 0.7182042 -1.0337543
nan nan nan
3.5205064 0.36171615 -0.6318239
3.4260981 0.31411055 -0.61446214
3.5079033 0.2828972 -0.62863618
3.4861891 0.24278411 -0.6242401
3.4738324 0.20367676 -0.62181824
3.4660492 0.1651268 -0.62005919
3.4676628 0.12715302 -0.61995167
3.4245629 0.088040769 -0.61203736
3.4203849 0.050373077 -0.61126405
3.4306531 0.012975158 -0.61291671
3.4256251 -0.024638671 -0.61193115
3.3858302 -0.061413575 -0.60468751
3.3899102 -0.09871994 -0.60546124
3.3640578 -0.1348462 -0.60096318
3.3476403 -0.17093582 -0.59801561
3.3309276 -0.20670228 -0.59527773
3.3088076 -0.24178679 -0.59145719
3.3060308 -0.27798796 -0.59125149
3.3028426 -0.31429198 -0.59094298
3.2845581 -0.34883073 -0.58800554
3.270787 -0.38372362 -0.58594668
3.2664995 -0.41955414 -0.58553833
3.256928 -0.45460203 -0.58425534
3.2469637 -0.48954317 -0.58297366
3.1977298 -0.51807863 -0.57470578
3.1870556 -0.55217838 -0.57333118
3.171257 -0.58527833 -0.57108611
3.1550972 -0.61806625 -0.56884414
3.1385798 -0.6506424 -0.56660527
nan nan nan
nan nan nan
nan nan nan
5.3174057 -1.3477945 -0.9658429
5.2550173 -1.393308 -0.95599365
5.2349415 -1.4494379 -0.95394957
5.2424412 -1.5138294 -0.95725954
5.2022901 -1.5638849 -0.95159328
5.166152 -1.6150618 -0.94713622
5.1296377 -1.6656578 -0.94251937
5.1254296 -1.7261801 -0.94359374
5.1109805 -1.7839297 -0.94311154
5.0728292 -1.8332428 -0.93850935
5.0572267 -1.8906066 -0.93786132
5.0272985 -1.9424108 -0.93481439
5.0150828 -2.0011499 -0.9350183
4.970396 -2.0466237 -0.92925447
4.9524574 -2.1028199 -0.92860657
4.9339771 -2.1589487 -0.92778915
4.9054689 -2.2116265 -0.92560732
4.885778 -2.2671878 -0.92478716
4.8520331 -2.3163106 -0.92143017
4.8090329 -2.3605628 -0.9162274
4.7960262 -2.4204664 -0.91725916
4.7783332 -2.4773951 -0.91710937
4.7426376 -2.5249159 -0.91360015
4.731997 -2.5867651 -0.9152835
4.7037859 -2.6383467 -0.91328031
4.6957698 -2.7028933 -0.91577744
4.6282086 -2.7313201 -0.90628201
4.6359029 -2.8056898 -0.91192043
4.5886207 -2.8456032 -0.90642929
4.5528803 -2.8939183 -0.9037652
4.52563 -2.9460204 -0.9022522
4.5135651 -3.0099945 -0.90452576
4.4597993 -3.0461037 -0.89840925
4.4349694 -3.1002102 -0.89770681
4.4205441 -3.1637774 -0.89961249
4.3824291 -3.208786 -0.89644408
4.3586574 -3.2662134 -0.89669675
4.3185234 -3.3115582 -0.89369655
4.286726 -3.3613915 -0.89181155
4.2571955 -3.4150722 -0.89123327
4.1963348 -3.4435425 -0.88404846
4.1444507 -3.4761744 -0.87815797
nan nan nan
nan nan nan
3.1832793 -2.8535874 -0.68792665
3.0425165 -2.7887926 -0.66218197
2.7306552 -2.559129 -0.59854889
2.7272737 -2.6133454 -0.60232544
2.5477557 -2.4939935 -0.56648618
2.4224768 -2.4244888 -0.54292876
2.2645092 -2.3170605 -0.51149905
2.098954 -2.1957986 -0.47802886
2.0790563 -2.2217395 -0.47711426
2.0679595 -2.2593443 -0.47860411
2.0462792 -2.2859199 -0.4777652
2.0438557 -2.3345892 -0.48152164
2.0193243 -2.3562458 -0.47960511
1.9965298 -2.3823605 -0.47873718
1.9859903 -2.4235487 -0.4808014
1.9531091 -2.4377942 -0.47754884
1.9476357 -2.4866359 -0.48108307
1.9276165 -2.5150564 -0.4806326
1.9029987 -2.5402377 -0.47952119
1.9071076 -2.6051848 -0.48584414
1.8526202 -2.590111 -0.47728088
1.8496153 -2.6470335 -0.48205781
1.8260964 -2.6756296 -0.4816353
1.8010571 -2.6989331 -0.48026854
1.7875292 -2.7437201 -0.48264098
1.7680463 -2.7801149 -0.48352477
1.784416 -2.8753967 -0.49450561
2.9700084 -4.9056244 -0.83437532
2.9965818 -5.0748711 -0.85377777
1.4072198 2.4581616 -0.39564148
1.3285584 2.2631104 -0.36804658
1.3863336 2.303458 -0.37848264
1.7049633 2.7640967 -0.45904785
1.6142982 2.5577981 -0.42932969
1.4941821 2.3111804 -0.39212525
1.6149334 2.4389932 -0.41834244
1.8885316 2.7856386 -0.48310548
1.6477576 2.3743713 -0.41632813
1.5760803 2.2188492 -0.39351654
1.5855361 2.1813803 -0.39126968
nan nan nan
nan nan nan
2.3287606 2.9956257 -0.55650103
2.3888855 3.0047266 -0.56492555
2.4120865 2.9666893 -0.56451082
2.4536548 2.9513245 -0.56847781
2.4715166 2.910078 -0.56755006
2.5225406 2.9050353 -0.57374179
2.5244546 2.8437371 -0.56886476
2.5519922 2.8120313 -0.56976563
2.596029 2.7981701 -0.57438231
2.6285255 2.7740765 -0.57701355
2.6621602 2.7483754 -0.57941341
2.6920404 2.7188497 -0.58106691
2.7321148 2.6992736 -0.58486038
2.7567799 2.6665528 -0.5858838
2.8073294 2.6562657 -0.59196502
2.8398325 2.6283596 -0.59427518
2.8831608 2.6100838 -0.59887218
2.9253337 2.5922098 -0.60360581
2.9610448 2.5660934 -0.60658401
3.049304 2.5842919 -0.62030411
3.0660372 2.5408876 -0.61947972
3.1005225 2.5140271 -0.62261963
3.1549909 2.5009863 -0.62950587
3.2016234 2.4810455 -0.63474423
3.2318356 2.4493701 -0.63702166
3.2902708 2.4370596 -0.64462036
3.300705 2.3889198 -0.64276886
3.3987041 2.4043818 -0.65846515
3.3841896 2.338618 -0.65179807
3.4007907 2.2963579 -0.6517548
3.4628723 2.2830322 -0.66009516
3.4917617 2.2472522 -0.66203594
3.5199392 2.2118945 -0.66423649
3.5565917 2.1805785 -0.66776353
3.5966165 2.1520367 -0.67221999
3.6371202 2.1222174 -0.67655849
3.6725087 2.0898438 -0.68024415
3.7297707 2.0683742 -0.68765628
3.790868 2.0487578 -0.69601816
3.8391869 2.0205894 -0.70187485
3.9266646 2.0125093 -0.7150799
3.9789951 1.9850981 -0.72191638
4.0226426 1.951876 -0.72689027
4.0881476 1.9289727 -0.73603147
4.1670051 1.9111295 -0.7476114
4.1877012 1.8649176 -0.7484619
4.2301922 1.8290644 -0.7536304
4.1177669 1.7273934 -0.73119736
4.0220094 1.6359009 -0.71207279
3.9614303 1.5611061 -0.69910693
3.8812222 1.480849 -0.68299437
3.8461142 1.4195321 -0.67483246
3.824157 1.3641737 -0.66908932
3.848053 1.3254433 -0.67147064
3.8668337 1.2848274 -0.67291474
3.8570814 1.2349576 -0.66959304
3.874824 1.1943183 -0.67116123
3.9065354 1.1575294 -0.67493135
3.9046535 1.110628 -0.67310786
nan nan nan
nan nan nan
5.9341612 1.4799926 -1.0168091
6.0314364 1.4343027 -1.0315164
6.1091232 1.3824737 -1.0429596
6.1431384 1.319761 -1.0468277
6.2537932 1.2721621 -1.0638537
6.3543992 1.2203906 -1.0794531
6.3477998 1.147414 -1.0767609
6.3062906 1.068893 -1.0682993
6.3175712 0.99982363 -1.0686951
6.2939072 0.92573088 -1.0635177
6.2498012 0.84953111 -1.0548394
6.2294173 0.77756023 -1.0502794
6.1785841 0.70250106 -1.0405712
nan nan nan
nan nan nan
3.6520779 0.29431579 -0.61357361
3.6156714 0.25155714 -0.60707933
3.6477878 0.21369781 -0.61203504
3.635159 0.17308137 -0.60955721
3.6023524 0.13206543 -0.60388702
3.5838606 0.092073061 -0.60047168
3.5649142 0.052623138 -0.59716779
3.5455205 0.013494415 -0.59386396
3.5208645 -0.025166931 -0.58951628
3.5253594 -0.0638237 -0.59034199
3.5146279 -0.10204986 -0.58847308
3.4936123 -0.13977478 -0.58495528
3.4574058 -0.17620698 -0.57907289
3.4454193 -0.21351624 -0.57720947
3.4282069 -0.25014403 -0.57441664
3.4204211 -0.28716797 -0.57338011
3.4072037 -0.32361817 -0.57141483
3.4034975 -0.36099946 -0.57109714
3.384778 -0.39655319 -0.56831205
3.3704605 -0.43230712 -0.56635177
3.3705094 -0.46978456 -0.56675261
3.3603678 -0.50590026 -0.56551069
3.3206084 -0.53718323 -0.55934906
3.3097124 -0.57266098 -0.55811322
3.27912 -0.60435241 -0.55349976
3.2820969 -0.64214265 -0.5547235
3.2749586 -0.6780414 -0.55420625
3.2722254 -0.71488953 -0.55450559
nan nan nan
nan nan nan
5.4423823 -1.3775259 -0.92639619
5.4415822 -1.4407005 -0.92761964
5.4160552 -1.497614 -0.9251247
5.3948035 -1.5555121 -0.92327058
5.3634362 -1.610122 -0.91945118
5.3316412 -1.6644213 -0.91598445
5.303772 -1.7197602 -0.91315919
5.2943316 -1.780841 -0.91356623
5.2932787 -1.8453759 -0.91558105
5.2358642 -1.889696 -0.90775633
5.2150378 -1.9470117 -0.9063794
5.179882 -1.9986534 -0.90259552
5.1579094 -2.0553017 -0.90122223
5.149116 -2.1172376 -0.90207642
5.1122475 -2.1675682 -0.89813232
5.1017833 -2.2299755 -0.89932251
5.0683403 -2.2815177 -0.89600986
5.0255108 -2.3283691 -0.89128602
5.0174832 -2.3923378 -0.89291722
4.9869347 -2.444973 -0.89040756
4.9603271 -2.499218 -0.88869095
4.932518 -2.553978 -0.887146
4.9179602 -2.6144898 -0.88761836
4.8888721 -2.6688793 -0.8860693
4.8511672 -2.7172379 -0.88243651
4.8168182 -2.768383 -0.88010788
4.8165617 -2.8382909 -0.8835113
4.7808981 -2.8889375 -0.88083255
4.7326918 -2.9304821 -0.87565374
4.7210422 -2.9959929 -0.87781125
4.6713133 -3.0375586 -0.87281615
4.6466632 -3.0936372 -0.87212223
4.6245956 -3.1533692 -0.87236297
4.5945897 -3.2061594 -0.87088352
4.5591173 -3.2570317 -0.86880708
4.5389071 -3.3192246 -0.86978793
4.4952221 -3.3622727 -0.86583251
4.4736509 -3.4240355 -0.86679381
4.424057 -3.4644704 -0.86225736
4.4023628 -3.5245366 -0.86285341
4.3748364 -3.5826805 -0.86267817
nan nan nan
nan nan nan
3.4111853 -2.9859588 -0.68562317
3.3707952 -3.017143 -0.68217313
3.2571828 -2.9809816 -0.66386354
2.9028699 -2.7163951 -0.59598267
2.7380853 -2.6175797 -0.56582731
2.5818894 -2.5234101 -0.5375641
2.4595776 -2.4575396 -0.51607257
2.3182557 -2.3680434 -0.49031371
2.1357641 -2.2284081 -0.45503172
2.0875154 -2.2267585 -0.44842088
2.0629432 -2.2498243 -0.44691452
2.0513961 -2.2873411 -0.44829574
2.0261908 -2.309988 -0.44677964
2.0148277 -2.3464203 -0.44794083
2.0112598 -2.3951697 -0.45131838
1.9817921 -2.4135249 -0.44896743
1.9645139 -2.44696 -0.44945741
1.9438294 -2.4763203 -0.44922549
1.9286133 -2.5134766 -0.45039064
1.8963989 -2.525871 -0.44713348
1.8803695 -2.5626709 -0.44817352
1.8609099 -2.5955107 -0.44849622
1.8409899 -2.6281495 -0.4488025
1.8261003 -2.6688547 -0.45047197
1.804961 -2.7013354 -0.45073974
1.7672132 -2.7088101 -0.4467853
1.7737372 -2.7815378 -0.45364746
nan nan nan
nan nan nan
nan nan nan
1.4168698 2.4679828 -0.37153745
1.3817139 2.3505249 -0.35759735
nan nan nan
1.844002 2.9859028 -0.46378234
1.5794873 2.4962776 -0.39187074
1.5013741 2.3166122 -0.36758804
nan nan nan
nan nan nan
2.0457935 2.9410489 -0.48232362
2.09601 2.9478028 -0.48899841
2.0492725 2.8164625 -0.47252122
2.2335725 3.0003693 -0.50920105
2.2810669 2.9953063 -0.51431274
2.3408175 3.005197 -0.52216339
2.3918381 3.0025101 -0.52789307
2.418102 2.9683409 -0.52830005
2.4456012 2.9389386 -0.52950132
2.4967799 2.9344761 -0.53527862
2.502594 2.8769257 -0.53141934
2.5337296 2.8491974 -0.53294677
2.5712914 2.8284442 -0.53598022
2.5951781 2.7928009 -0.53611904
2.6481738 2.7902095 -0.54277128
2.6680653 2.7501471 -0.542211
2.690974 2.7135913 -0.54234129
2.734519 2.6976941 -0.54657227
2.7566426 2.6605067 -0.54669887
2.7882309 2.6342621 -0.54906082
2.8568299 2.6403489 -0.55829316
2.8891652 2.6120052 -0.56032437
2.9323342 2.5930548 -0.56462067
2.9820611 2.5809832 -0.57048446
3.0441456 2.5766764 -0.57827944
3.0874331 2.555475 -0.58250886
3.1074266 2.5150135 -0.58242673
3.1650879 2.5060472 -0.58981198
3.2000556 2.4769914 -0.59250581
3.2467408 2.4564669 -0.59738326
3.2767127 2.4243724 -0.5996179
3.3230331 2.4025264 -0.60452133
3.3896186 2.3942533 -0.6129657
3.3708251 2.3257177 -0.60606629
3.3913615 2.2864401 -0.60672247
3.4451368 2.2679975 -0.61300325
3.4858274 2.2412817 -0.61734986
3.5017447 2.197536 -0.61689693
3.5466855 2.1716678 -0.62174147
3.5910077 2.1458523 -0.62672883
3.6270602 2.1135612 -0.6299876
3.6924574 2.0986099 -0.63858765
3.7412145 2.0722198 -0.644104
3.7893603 2.0455263 -0.64976794
3.8639333 2.0312665 -0.65966308
3.9296308 2.0117574 -0.66822392
3.9866941 1.9860605 -0.67517257
4.0212111 1.9490845 -0.6785242
4.0780883 1.9215235 -0.68550295
4.1614614 1.905947 -0.69701511
4.199872 1.868628 -0.70116121
4.2290978 1.8262854 -0.70338011
4.2440224 1.7781566 -0.7036199
4.3087049 1.7504472 -0.71218258
4.3273706 1.7034948 -0.71318769
4.2949495 1.6364685 -0.70541841
4.2243009 1.5570238 -0.69184065
4.1710157 1.4859961 -0.68126953
4.0466895 1.3922387 -0.65925199
3.9536207 1.3121709 -0.6423862
4.0100007 1.2824982 -0.64989442
3.9810193 1.2257305 -0.64380115
nan nan nan
nan nan nan
nan nan nan
5.9093609 1.5406622 -0.9471423
5.9928894 1.4928818 -0.95863342
6.0565982 1.4388795 -0.96707153
6.1539025 1.3912629 -0.9808988
6.2119904 1.3331732 -0.98840052
6.2648506 1.2731494 -0.99514157
6.3510551 1.2185988 -1.0072764
6.4075928 1.1571918 -1.0148053
6.4929237 1.0995785 -1.0269649
6.4898791 1.0262772 -1.0250596
6.4615335 0.94950169 -1.0192972
6.437151 0.87424541 -1.0143013
6.4265723 0.80137116 -1.011616
6.4104323 0.72836763 -1.0079572
6.3344626 0.6496532 -0.99523014
nan nan nan
3.9342849 0.31674224 -0.61702561
3.8290393 0.26628754 -0.6001547
3.7775197 0.22125824 -0.59165829
3.7500184 0.17847289 -0.5871399
3.7468214 0.13735566 -0.58636737
3.7036514 0.095214844 -0.57929993
3.6897485 0.054483946 -0.57698274
3.675271 0.014077148 -0.57466555
3.670331 -0.026075743 -0.57366639
3.6500077 -0.065853268 -0.57057798
3.6342921 -0.1053418 -0.56803709
3.6132002 -0.14430909 -0.56472659
3.5769882 -0.18198013 -0.55921555
3.5994294 -0.22266693 -0.56284946
3.5425584 -0.25803956 -0.55414873
3.5395961 -0.29676741 -0.55392927
3.536195 -0.33549529 -0.55360019
3.5225296 -0.37307283 -0.551732
3.5084488 -0.4104355 -0.54986572
3.4793639 -0.44559172 -0.54569548
3.4597001 -0.48157471 -0.54295826
3.4395411 -0.51712888 -0.54033202
3.4239852 -0.55315065 -0.53836852
3.4178796 -0.59053439 -0.53783292
3.4112384 -0.62791806 -0.53740448
3.394577 -0.66329956 -0.53544617
3.3823681 -0.69936264 -0.53425461
nan nan nan
nan nan nan
nan nan nan
5.6772814 -1.4351418 -0.90191346
5.6472168 -1.4931912 -0.89836758
5.6068063 -1.5482967 -0.89366949
5.5992427 -1.6124538 -0.89410859
5.5768781 -1.6718411 -0.89209199
5.5206161 -1.7210083 -0.88496244
5.4969897 -1.7796497 -0.8829574
5.4867396 -1.8429098 -0.88339597
5.4336934 -1.8913935 -0.87669438
5.4082623 -1.9488627 -0.87469894
5.3728943 -2.0033081 -0.87138063
5.3646073 -2.0672283 -0.8722145
5.3420701 -2.1256125 -0.87079483
5.3051028 -2.1781862 -0.8671326
5.2808533 -2.2365968 -0.8658936
5.2564273 -2.2941225 -0.86430055
5.2312927 -2.351294 -0.86270756
5.2052736 -2.4088197 -0.86129153
5.1880064 -2.4697111 -0.86118072
5.1516418 -2.522455 -0.85828251
5.1153717 -2.5739419 -0.85503572
5.0781379 -2.6257656 -0.85197145
5.0801392 -2.6972103 -0.85535586
5.0414639 -2.7485526 -0.85229045
5.0160184 -2.8055308 -0.85125154
5.0064402 -2.8731606 -0.85313368
4.9582248 -2.9174378 -0.84825748
4.9257493 -2.9720953 -0.84648287
4.8971267 -3.0291779 -0.84543461
4.8559103 -3.0768106 -0.84203154
4.8343163 -3.1384392 -0.84225005
4.8127246 -3.1989186 -0.84228027
4.7651653 -3.2436759 -0.83816147
4.7454948 -3.3076119 -0.83907712
4.7047219 -3.3571804 -0.83639896
4.6567287 -3.3990424 -0.8319397
4.6467972 -3.4713275 -0.83497131
4.5926199 -3.5106299 -0.82998294
4.5626359 -3.5660934 -0.82890469
4.5463772 -3.6349843 -0.83100224
4.4870229 -3.6695597 -0.82532483
nan nan nan
nan nan nan
3.4256363 -2.9944344 -0.64210522
3.3520739 -2.9958625 -0.63261843
3.2897186 -3.006134 -0.62512207
3.1563697 -2.9466724 -0.60367799
2.7906163 -2.6635485 -0.53763074
nan nan nan
2.4825804 -2.4764228 -0.48560485
2.3234694 -2.3693726 -0.45811003
2.133759 -2.2224996 -0.42377165
2.0719702 -2.2063165 -0.41487885
2.0678387 -2.2510483 -0.41754076
2.0463893 -2.2774227 -0.41680297
2.0311179 -2.3111253 -0.41740495
2.0056283 -2.3335826 -0.41588882
1.9939423 -2.3697853 -0.41694641
1.977353 -2.4032001 -0.41741458
1.9665344 -2.4442594 -0.41919249
1.9396828 -2.4658949 -0.41764709
1.9276487 -2.5068877 -0.41938844
1.8972173 -2.5240502 -0.4170787
1.8812551 -2.5609288 -0.41813278
1.8604379 -2.58864 -0.41757324
1.8405322 -2.6212208 -0.41784576
1.8229675 -2.6577835 -0.41874695
1.7993274 -2.6860578 -0.41834411
1.7725937 -2.710006 -0.41719225
1.7562463 -2.7504351 -0.4186798
1.7837342 -2.8623171 -0.43081057
nan nan nan
nan nan nan
nan nan nan
nan nan nan
nan nan nan
1.9254935 3.109556 -0.44960418
nan nan nan
nan nan nan
1.5267602 2.2976911 -0.34308839
nan nan nan
nan nan nan
2.1909406 3.0743768 -0.47469604
2.2358415 3.0662568 -0.47882539
2.2719586 3.0454857 -0.48108763
2.3048024 3.020473 -0.48272398
2.3527877 3.0145423 -0.48740432
2.3869379 2.9935968 -0.48992124
2.4255998 2.9748971 -0.49272582
2.4546666 2.944279 -0.4936226
2.4993801 2.9322455 -0.49771819
2.5148664 2.8859296 -0.49604675
2.5328906 2.8433201 -0.49499997
2.5702698 2.822644 -0.49781644
2.6165237 2.8135376 -0.50270462
2.6402028 2.777379 -0.5028227
2.6496704 2.7269135 -0.50032425
2.7001214 2.7186396 -0.50565356
2.7331402 2.6922765 -0.50772488
2.7587428 2.658603 -0.50836641
2.7937889 2.6359177 -0.51121902
2.858825 2.6386664 -0.51913297
2.8875725 2.6069243 -0.52045059
2.9344132 2.5914643 -0.52509159
3 2.5914307 -0.53308105
3.0385737 2.5688009 -0.5365504
3.0817852 2.547734 -0.54045457
3.1326106 2.5323133 -0.54571337
3.148366 2.4884858 -0.54493564
3.2060468 2.4788637 -0.5516907
3.2644999 2.467186 -0.55834657
3.2754073 2.4193661 -0.55677158
3.3377707 2.4092104 -0.56400883
3.371352 2.3789105 -0.56676435
3.3726852 2.3248019 -0.56369162
3.4061406 2.2929814 -0.56619322
3.438704 2.2616146 -0.56882721
3.4756787 2.2317288 -0.57189882
3.4998579 2.1932969 -0.57291687
3.5569413 2.176049 -0.57969725
3.5890861 2.1419384 -0.5819757
3.6465073 2.1221998 -0.58853215
3.6948359 2.0973449 -0.59372407
3.7478139 2.0734076 -0.59962386
3.7872889 2.0421553 -0.60345745
3.8751886 2.0349159 -0.6148181
3.9412608 2.0146921 -0.6225915
3.9981384 1.9896412 -0.62926394
4.0285215 1.9499121 -0.63148683
4.076088 1.9186982 -0.63678896
4.1598048 1.9026763 -0.64729065
4.2117753 1.8714896 -0.65318882
4.2180271 1.8198632 -0.65207517
4.2468429 1.77724 -0.65419006
4.2978239 1.7440072 -0.66011488
4.3440509 1.7081227 -0.66520524
4.3623247 1.6603512 -0.66578084
4.4218264 1.6281153 -0.67300665
4.4952149 1.5998023 -0.68237245
4.7602043 1.6360826 -0.72066468
5.1582675 1.7102636 -0.77890044
5.1150761 1.6343873 -0.77034074
5.2792711 1.6236969 -0.79320186
5.4578323 1.613678 -0.81806946
5.7225957 1.6242847 -0.85579407
5.8496666 1.5919991 -0.8731041
5.900012 1.5368042 -0.87865722
5.9980054 1.4926404 -0.89154387
6.0667877 1.4398408 -0.89997256
6.1495538 1.3889663 -0.91074979
6.2320681 1.3362292 -0.92134768
6.3333111 1.2859524 -0.93482149
6.3908005 1.2251877 -0.9418655
6.4523392 1.1641464 -0.94943237
6.527895 1.1045196 -0.95936006
6.6030703 1.0431 -0.96888733
6.6727438 0.97957307 -0.97790927
6.6929488 0.90811157 -0.97976071
6.6777711 0.83215332 -0.97658694
6.6619043 0.75631565 -0.9732033
6.6451492 0.68101501 -0.96981812
6.5486751 0.59903961 -0.95493484
nan nan nan
nan nan nan
nan nan nan
4.0230503 0.19140229 -0.58513707
3.9309654 0.14399184 -0.57147902
3.8778906 0.099650882 -0.56357181
3.8442152 0.05679062 -0.55842131
3.8198309 0.014724731 -0.55482787
3.8099349 -0.026905822 -0.55327302
3.7945061 -0.068231352 -0.55100036
3.7737858 -0.10908981 -0.54801041
3.7773328 -0.1505011 -0.54849547
3.7607586 -0.19101639 -0.5461095
3.7584362 -0.23212266 -0.54587722
3.6569462 -0.26593506 -0.53130478
3.6538935 -0.30584791 -0.53107864
3.6553147 -0.34622741 -0.53156888
3.6562729 -0.38671461 -0.53194517
3.6371064 -0.42489931 -0.52945864
3.5930951 -0.45951051 -0.52339965
3.5977604 -0.50007784 -0.5243817
3.5724733 -0.53645021 -0.52130127
3.5029459 -0.56518888 -0.51158023
3.5404909 -0.61105591 -0.51755863
3.4996614 -0.64334351 -0.51212955
3.5265326 -0.68815798 -0.51667237
nan nan nan
nan nan nan
5.7599349 -1.3210592 -0.84700102
5.8656559 -1.4128911 -0.8639915
5.845233 -1.4758512 -0.86235356
5.8336635 -1.5404904 -0.86194545
5.8167367 -1.60429 -0.86101544
5.7941236 -1.6663495 -0.85919404
5.7567563 -1.7238593 -0.85526097
5.718956 -1.7807693 -0.85133517
5.6993852 -1.8431748 -0.85022736
5.6837687 -1.9067854 -0.8496365
5.6814079 -1.9751906 -0.85133052
5.6131349 -2.0203462 -0.84303665
5.5908866 -2.0819421 -0.84193343
5.5449829 -2.133728 -0.8369751
5.5215454 -2.1941528 -0.83569336
5.5109353 -2.2603977 -0.8364976
5.4680958 -2.3125243 -0.83225262
5.4473877 -2.3737793 -0.83148193
5.3984327 -2.4235146 -0.82655865
5.3809843 -2.4863832 -0.82648087
5.3444595 -2.5411255 -0.82364118
5.3258247 -2.6034606 -0.82337588
5.2969661 -2.6619077 -0.82191467
5.2719603 -2.7226274 -0.82113886
5.2335949 -2.7750208 -0.8179431
5.2116361 -2.8374259 -0.8178485
5.1677694 -2.8864822 -0.81397706
5.1530509 -2.9532254 -0.81505507
5.1204853 -3.0099406 -0.81340849
5.0834932 -3.0626359 -0.81071925
5.0538902 -3.121176 -0.80974942
5.0151258 -3.1743269 -0.80724609
4.9934158 -3.2365205 -0.80725175
4.9409857 -3.2805355 -0.8027367
4.9253097 -3.3488951 -0.80425572
4.8891778 -3.4019008 -0.80205476
4.8515787 -3.4558234 -0.80022067
4.8252587 -3.5179543 -0.80019534
4.7824903 -3.5683124 -0.79751039
4.7519746 -3.6255817 -0.79662693
4.7352996 -3.6963263 -0.79837096
4.6791201 -3.7361071 -0.7937085
4.6606812 -3.8065317 -0.79542786
nan nan nan
nan nan nan
nan nan nan
3.3439281 -2.9843202 -0.58541507
3.3146234 -3.024492 -0.58440554
3.2897017 -3.066467 -0.58375943
nan nan nan
2.5610595 -2.4949398 -0.46118653
2.4632766 -2.453115 -0.44689608
2.3215282 -2.363421 -0.42453307
2.140897 -2.2280691 -0.39460343
2.0833359 -2.2145672 -0.38686645
2.0556574 -2.2337401 -0.38492796
2.037735 -2.2637126 -0.38487425
2.0227425 -2.2972744 -0.38534257
2.0168409 -2.3420489 -0.38775894
1.991174 -2.3641982 -0.38633302
1.9841487 -2.4090424 -0.38871002
1.9589065 -2.4297736 -0.3870784
1.9383686 -2.4590669 -0.38686493
1.9235259 -2.4960685 -0.3878639
1.8902298 -2.5091665 -0.38509688
1.8744727 -2.5459199 -0.38607237
1.843678 -2.5623999 -0.38391358
1.835615 -2.6110101 -0.3865692
1.8182065 -2.6475899 -0.3873944
1.7947123 -2.6757782 -0.38700745
1.7724295 -2.7026992 -0.38641205
1.750859 -2.7346134 -0.38659605
1.7629211 -2.8212461 -0.39431608
nan nan nan
nan nan nan
1.8393756 3.1950746 -0.41461244
1.8663313 3.161859 -0.41451475
1.9107852 3.158226 -0.41834563
1.9658517 3.170917 -0.42445436
1.8936929 2.9814134 -0.40336579
1.7497476 2.6899252 -0.36786988
1.7512903 2.6292646 -0.36343691
1.8243982 2.6756115 -0.37397277
2.1148646 3.0302198 -0.42821777
2.2226088 3.1119108 -0.44470978
2.2428548 3.0726025 -0.44415283
2.2789037 3.0519195 -0.44625413
2.3058794 3.0188644 -0.44660798
2.3538482 3.0129821 -0.45093688
2.3987906 3.0025332 -0.45481473
2.4249866 2.9683881 -0.45505309
2.463393 2.9493868 -0.45764923
2.5017285 2.9297743 -0.46037111
2.5092006 2.8770616 -0.45774367
2.5371094 2.845664 -0.45855469
2.571156 2.8214424 -0.46044251
2.6119318 2.8039422 -0.46365234
2.6387832 2.7714872 -0.46434587
2.6654389 2.7388718 -0.465036
2.7055471 2.7199371 -0.46814528
2.7456496 2.700536 -0.47126466
2.7595325 2.6575193 -0.470249
2.8028407 2.6407399 -0.47398806
2.8460908 2.6231689 -0.47762147
2.8929627 2.6083617 -0.48188093
2.9398377 2.5927904 -0.48615572
3.0008829 2.5906296 -0.49315718
3.0630419 2.5862756 -0.49982178
3.0720239 2.536576 -0.49795407
3.1111729 2.511986 -0.50092137
3.1850777 2.5145612 -0.50950259
3.2045581 2.4733007 -0.50937742
3.2622533 2.4628465 -0.51562864
3.2890344 2.4267614 -0.51676023
3.3434768 2.410732 -0.52216464
3.3695977 2.3739598 -0.52330583
3.3620231 2.3150642 -0.51939815
3.4118328 2.2946258 -0.5241968
3.4490623 2.2652245 -0.52710938
3.4735644 2.2271385 -0.52812499
3.4971776 2.1896875 -0.52926755
3.5420773 2.164021 -0.5333423
3.5824885 2.1352232 -0.53678942
3.6436539 2.1189041 -0.54357147
3.7097476 2.1032839 -0.55088502
3.7411294 2.0672688 -0.55308682
3.7980194 2.0455673 -0.55914915
3.8771374 2.0336916 -0.56844741
3.9429843 2.01421 -0.57583892
3.9912877 1.9841211 -0.580531
4.0216146 1.9445411 -0.58264744
4.0826144 1.9199479 -0.58943939
4.1438856 1.8936425 -0.59597015
4.2048583 1.8667333 -0.60279781
4.2204132 1.8186096 -0.60285556
4.2535129 1.7785172 -0.60565799
4.3000927 1.7430029 -0.6102795
4.3463435 1.7071738 -0.6149103
4.3876204 1.6686945 -0.61904114
4.4381032 1.6325547 -0.62419921
nan nan nan
nan nan nan
5.4345064 1.8002815 -0.75835651
5.543252 1.7697061 -0.77154815
5.6096191 1.7238965 -0.77884281
5.699348 1.6833494 -0.78925872
5.75524 1.6323304 -0.79544568
5.8442912 1.5890326 -0.806077
5.9092236 1.537744 -0.81323731
5.9881048 1.4888099 -0.82238847
6.0711942 1.4396585 -0.83240461
6.1590791 1.3897439 -0.84271085
6.2366557 1.3361737 -0.85189909
6.3479323 1.2879342 -0.86573589
6.4150338 1.2287873 -0.87362552
6.5061407 1.172868 -0.88463807
6.5476713 1.1069885 -0.88902587
6.5935912 1.0408337 -0.8938756
6.6829343 0.98040497 -0.90490919
6.7571731 0.91605961 -0.91395998
6.8453026 0.85237062 -0.92501223
6.89854 0.78263259 -0.9312067
6.8721542 0.70384914 -0.92676663
6.8744516 0.62831241 -0.92610186
6.8413119 0.55010301 -0.92099458
6.7924271 0.47172546 -0.91388947
6.7527256 0.39511183 -0.90790325
nan nan nan
nan nan nan
nan nan nan
4.1473236 0.061431427 -0.55658662
4.113019 0.015957642 -0.5519318
4.0089545 -0.028145142 -0.53772032
3.9490025 -0.070900112 -0.52974427
3.923141 -0.11323608 -0.52617919
3.9119079 -0.15562287 -0.52472991
3.8703847 -0.19628754 -0.51917756
3.8630517 -0.23822311 -0.51827532
3.8405397 -0.27885497 -0.51538378
3.8075891 -0.31834808 -0.51128632
3.7891405 -0.35847655 -0.50894529
3.7899675 -0.40036437 -0.50937331
3.7410889 -0.43649903 -0.50306398
3.7313023 -0.47657549 -0.50205463
3.7259748 -0.51722628 -0.50159132
3.7249694 -0.55872804 -0.50190431
3.6991351 -0.59616208 -0.49891663
3.6924443 -0.63653684 -0.49857056
3.6902826 -0.67769152 -0.498768
nan nan nan
nan nan nan
nan nan nan
6.0829124 -1.3935525 -0.82606506
6.067544 -1.4598299 -0.82529664
6.0367961 -1.5224707 -0.82237184
6.0438948 -1.5945293 -0.82468349
6.0024905 -1.653368 -0.82026368
5.9650345 -1.7138202 -0.81688726
5.955811 -1.7816153 -0.81723541
5.9171677 -1.8404007 -0.81348419
5.8686442 -1.8957256 -0.80844051
5.8900709 -1.9736814 -0.81295103
5.8450484 -2.0295994 -0.80856442
5.7945852 -2.0835187 -0.80372953
5.7437711 -2.1360681 -0.79852659
5.7388973 -2.2056091 -0.79978633
5.7098813 -2.2665973 -0.79800707
5.6851149 -2.3286078 -0.7964946
5.6502676 -2.3869479 -0.79407638
5.6605935 -2.4641259 -0.79769212
5.5970397 -2.5100138 -0.7912451
5.5788655 -2.5747592 -0.79101199
5.5503178 -2.6358244 -0.78968859
5.5122905 -2.6923473 -0.78690386
5.4830341 -2.7519927 -0.78539383
5.4350133 -2.8031108 -0.781349
5.4308343 -2.875737 -0.78344971
5.3903575 -2.9307401 -0.78067505
5.3405666 -2.9801514 -0.77664548
5.3299212 -3.0502298 -0.77790588
5.2961073 -3.1087899 -0.77639467
5.2489762 -3.1592979 -0.77281725
5.2317576 -3.2260585 -0.77342975
5.1836333 -3.2757695 -0.76985961
5.1557517 -3.3381193 -0.76940525
5.1145916 -3.3920481 -0.76689619
5.1027942 -3.4636943 -0.76852965
5.0604072 -3.5170038 -0.76620573
5.0336862 -3.5813506 -0.76615673
5.0020046 -3.6424747 -0.76548481
4.9550376 -3.6902046 -0.76197737
4.9181409 -3.7477343 -0.76068819
4.8886256 -3.810883 -0.76042324
4.7650208 -3.7998369 -0.74576414
4.6576638 -3.7987881 -0.73340744
4.7529316 -3.9646137 -0.75311679
4.6840572 -3.9926879 -0.74642944
nan nan nan
3.4095702 -3.0384033 -0.55057371
3.2952883 -3.002331 -0.53590053
3.2586329 -3.0351219 -0.53366137
nan nan nan
nan nan nan
2.4470711 -2.4330726 -0.40945357
2.2880113 -2.3254046 -0.38576296
2.1419213 -2.2252519 -0.36407349
2.0697753 -2.1981738 -0.35467285
2.0490189 -2.2244632 -0.35404816
2.0377836 -2.2617097 -0.35506409
2.0140252 -2.2831295 -0.35375458
2.0051806 -2.3240066 -0.35531983
2.0053473 -2.3763471 -0.35858217
1.969785 -2.386728 -0.35562789
1.959242 -2.4276357 -0.35714051
1.9326026 -2.4491005 -0.35579896
1.9118409 -2.4781449 -0.35549012
1.8936104 -2.510905 -0.35583067
1.8881836 -2.5585938 -0.35820314
1.8514367 -2.5672064 -0.35506606
1.8262088 -2.5914857 -0.35426056
1.8090537 -2.6278152 -0.35501221
1.7942165 -2.6682234 -0.35629621
1.7677221 -2.691925 -0.35536376
1.7596167 -2.7447779 -0.35814941
1.7506799 -2.7978051 -0.36099732
1.8313648 -2.9993777 -0.38264909
nan nan nan
1.8500098 3.2044811 -0.38246703
1.9023669 3.2141187 -0.38755524
1.9298726 3.1857872 -0.38812315
1.9748785 3.1814296 -0.39168963
2.0172381 3.1721869 -0.39474976
2.0542128 3.1540897 -0.39665803
2.0826554 3.123292 -0.39710772
2.1640642 3.1701758 -0.40746275
2.186836 3.1300781 -0.4067578
2.2207031 3.1059375 -0.40828124
2.2454133 3.0695252 -0.40808716
2.2784479 3.0447786 -0.40948793
2.323451 3.035588 -0.41291976
2.3715088 3.0295787 -0.41702178
2.3995838 3.0007772 -0.41801634
2.4414587 2.9858997 -0.42094117
2.4672902 2.9515126 -0.42115539
2.4959493 2.9205709 -0.42202666
2.5177505 2.8818603 -0.4216812
2.5422657 2.8467188 -0.42175782
2.583137 2.8297215 -0.4246994
2.6238949 2.8122692 -0.42753294
2.6542473 2.783334 -0.42883208
2.6694336 2.7409866 -0.42802581
2.7061701 2.7186565 -0.43031555
2.7356195 2.688736 -0.43149352
2.7647154 2.6586974 -0.43255371
2.8151691 2.6486142 -0.43710268
2.8731408 2.6445465 -0.44267669
2.9165726 2.6261811 -0.44613495
2.94033 2.5916753 -0.44677413
3.0136502 2.5982144 -0.45466921
3.0417614 2.5649698 -0.45576921
3.0924983 2.5504429 -0.46029142
3.1356702 2.5288062 -0.46356291
3.1631424 2.4942803 -0.46467665
3.2208383 2.4846432 -0.4703851
3.2556379 2.4551327 -0.47253603
3.2863195 2.422251 -0.47411501
3.3407426 2.4063213 -0.47916442
3.3749232 2.3752277 -0.48133487
3.3877549 2.3305187 -0.4806079
3.4170191 2.2960174 -0.48220032
3.4460907 2.2611725 -0.48366854
3.4747152 2.2258568 -0.48513889
3.4988074 2.1876898 -0.4860265
3.5430753 2.1628387 -0.48997128
3.6092093 2.1493378 -0.49660677
3.6409032 2.1146946 -0.49868649
3.7066185 2.0998325 -0.50548369
3.7510002 2.0711157 -0.50921953
3.7951162 2.0416596 -0.51296449
3.8788028 2.0323305 -0.52204555
3.9445574 2.012907 -0.52891725
3.992877 1.9828731 -0.53316009
4.0363283 1.9503731 -0.53709316
4.0752444 1.914587 -0.54016429
4.1545715 1.8966857 -0.54860836
4.2110887 1.8678662 -0.55422848
4.2129583 1.8138518 -0.55254453
4.2458739 1.7739117 -0.55504578
4.2787719 1.7329651 -0.55755156
4.3110819 1.6920021 -0.56006193
4.3941231 1.669417 -0.56904387
4.3792844 1.6097442 -0.5655548
nan nan nan
nan nan nan
5.4469728 1.8028986 -0.69780523
5.5513129 1.7707809 -0.70938718
5.6177492 1.7246192 -0.71597171
5.6978779 1.6816374 -0.72456348
5.7635279 1.6330671 -0.7311691
5.857471 1.5912659 -0.74160796
5.9128799 1.5374352 -0.74702257
5.9964638 1.4897598 -0.75608826
6.0701804 1.4383305 -0.76395124
6.1629858 1.3896242 -0.77425808
6.2408361 1.3357241 -0.78255737
6.3374519 1.2845891 -0.79329985
6.4045873 1.22586 -0.80059844
6.4029675 1.1534463 -0.79917067
6.3758245 1.0770189 -0.79469162
6.3087273 0.99525696 -0.78512967
6.2309494 0.91337168 -0.77453613
6.2109323 0.84160173 -0.77106673
6.2442269 0.77682805 -0.77431273
6.622169 0.75084716 -0.82052189
6.9310932 0.70954102 -0.85800475
7.0816913 0.64701033 -0.87572706
6.9992146 0.5626663 -0.86494291
6.9406877 0.48176637 -0.85699648
6.8364077 0.3998749 -0.8435486
7.0089402 0.3333481 -0.86433166
7.0915222 0.25987703 -0.87411195
7.0889616 0.18228821 -0.87350065
7.0656786 0.10473144 -0.87022704
7.011961 0.02738205 -0.86350483
6.9075365 -0.048215333 -0.85045898
nan nan nan
nan nan nan
nan nan nan
4.5844917 -0.23218155 -0.56443405
4.3290577 -0.26659027 -0.53304714
4.2269979 -0.30661955 -0.5205887
4.208643 -0.35138032 -0.51850021
4.1550808 -0.39267883 -0.5121507
4.1408472 -0.4368085 -0.51054871
4.1407833 -0.48257443 -0.51090086
4.1008115 -0.52316713 -0.50626206
4.0900488 -0.56722653 -0.5052734
nan nan nan
nan nan nan
6.2507648 -1.0762454 -0.77437407
6.4487844 -1.1828046 -0.79962265
6.4600415 -1.2576929 -0.80183995
6.426434 -1.3240979 -0.7986142
6.3971577 -1.3909315 -0.79599684
6.3818617 -1.4603674 -0.79519176
6.3561087 -1.5276847 -0.79298127
6.314961 -1.5907519 -0.78916991
6.2879443 -1.6568894 -0.78696752
6.2695541 -1.7252518 -0.78596807
6.2362499 -1.7893072 -0.78317094
6.1925263 -1.8504071 -0.7793802
6.1817431 -1.9207019 -0.77938354
6.1606517 -1.9877564 -0.77838868
6.134057 -2.0530362 -0.77659881
6.0504179 -2.0990844 -0.76786649
6.0507498 -2.1730216 -0.76945955
6.0126815 -2.2340307 -0.76669127
5.9789658 -2.2955291 -0.76412654
5.935113 -2.3537552 -0.76077604
5.8956213 -2.4122813 -0.75763094
5.8918691 -2.4865382 -0.7594043
5.8647475 -2.5502148 -0.75783205
5.8366432 -2.6144812 -0.75665283
5.7897162 -2.6700366 -0.75293154
5.7517462 -2.7282796 -0.75019377
5.7214255 -2.7912686 -0.74902004
5.686666 -2.8508584 -0.74667668
5.6463666 -2.9084682 -0.74414474
5.6231399 -2.9749787 -0.74394017
5.5859375 -3.0341797 -0.74179691
5.5355768 -3.0848608 -0.73792118
5.5275683 -3.1602035 -0.73982602
5.4882689 -3.2183328 -0.73768526
5.4705048 -3.2875969 -0.73802799
5.4384594 -3.3502011 -0.73703247
5.3847675 -3.3992484 -0.73317504
5.363893 -3.4691153 -0.73369658
5.3339109 -3.5334704 -0.7332654
5.2628908 -3.5683594 -0.72675782
5.2520032 -3.6460025 -0.72896487
5.2076955 -3.7008605 -0.72643614
5.170898 -3.7608852 -0.72523361
5.1334472 -3.820802 -0.72402835
5.0923719 -3.8756349 -0.72186649
5.0573683 -3.9375548 -0.72101897
4.8430419 -3.8568659 -0.69452482
4.7079892 -3.8347859 -0.67928255
4.803112 -4.0009298 -0.69737458
4.7854428 -4.0762739 -0.69913173
4.5845704 -3.990015 -0.67368007
3.5009971 -3.1153708 -0.51800537
3.3270516 -3.0267015 -0.49561235
3.2682946 -3.0394645 -0.49027157
3.1770895 -3.02057 -0.48005584
2.573535 -2.5010443 -0.39164886
2.4648879 -2.4487824 -0.37799925
2.3169482 -2.3507886 -0.35775512
2.1461923 -2.2259164 -0.33398712
2.0603058 -2.1842651 -0.32321593
